# 3D point list with one line of data per point:
#   POINT3D_ID, X, Y, Z, R, G, B, ERROR, TRACK[] as (IMAGE_ID, POINT2D_IDX)
# Number of points: 391, mean track length: 5.0637436762225967
7411 -0.054683764607132937 2.2596240539328933 2.3380946608770667 47 76 37 0.031043340579746788 79 780 26 823 21 741 28 1379
7412 -0.29251126148813095 2.2062737088759481 2.3263398362808774 241 231 140 0.25746928084374293 79 809 26 825 21 742
7413 -0.51451736024242534 2.1315399218789262 2.3696038776283883 79 115 69 0.12957004729366969 79 391 26 833 21 755
7414 -0.45774251660683474 2.1762209138029531 2.3790317891377417 47 94 52 0.20263753777024754 60 1209 26 843 21 761 28 1011 53 347 93 1051
7415 -0.35431107661977373 2.2309840804082719 2.3860651918218641 50 95 51 0.11338540643896677 65 406 26 845 21 771 28 1390
7417 -0.50567392925542964 2.1664491589940802 2.4086013601303335 49 96 51 0.14848513654001802 79 844 26 847 21 772 28 1388 53 745 93 1065
7418 -0.49440748558356229 2.0465117627713068 2.5547896852882781 145 144 103 1.5084043860124177 3 533 26 853
7419 -0.58053418073569607 2.1344961181990763 2.4560477104965028 53 107 58 0.15860132685396391 79 854 26 854 21 780 28 1398 53 759 18 709 93 1430
7420 -0.48785462946763264 2.1974513767914856 2.4501239589898303 170 167 124 0.25392831433179136 79 433 26 858 21 790 28 1406 53 382 93 1081 18 348
7422 -0.14403441700634539 2.3322104323881896 2.4956103958376694 234 243 255 0.15361121056649873 60 1221 26 879
7423 -0.59831624450863741 2.1879952903340882 2.5837370918336697 176 178 188 0.32631010640951341 60 740 26 896 21 826 28 1437
7424 -0.59630774669393383 2.1843855946330852 2.5867327476597275 176 178 188 0.32342737016244361 60 739 26 897 21 825 79 881 28 1438 53 788 64 1486 93 1467 18 744
7425 -0.68119395857109644 2.1402309919620111 2.6569162508210509 87 65 41 0.71334074814455628 85 1338 26 905 21 451
7426 0.15461041868642544 0.49655677202534843 1.5497624657100251 202 154 109 0.41649456188856165 79 905 26 921 21 863 28 1474
7427 0.070044030533330096 0.50431170438098949 1.5874206941878419 121 94 68 1.279641204269848 26 923 21 864 28 1475 80 619 75 585 45 1055
7428 -0.15629387602381981 0.62040137345952584 1.904162582844962 58 112 60 0.18623131409969754 79 1142 26 949 21 883 64 1752
7430 -0.14465383408423221 0.64009400641072123 1.9114734363499579 158 155 107 0.30130753171540475 61 2222 26 952 21 884 53 840
7431 0.50604830917018984 0.91157338149172951 1.9189913064629927 119 152 103 0.36751482524318729 85 2103 26 957 21 891
7433 0.2693375491120662 0.9132094814677707 1.9573337543212996 53 92 51 0.25242305633889867 65 881 26 964
7435 0.18868355673991527 0.53088504269015735 2.4530428410339553 161 164 119 0.089343442389756694 8 1372 26 984
7442 -0.59820031157067211 2.0015093971566906 2.3746916833017675 224 217 129 0.19772994858166201 79 1067 26 1101 21 1032
7443 -0.22967151669135799 2.2035804711629075 2.3258908470997053 68 127 67 0.46529495937337212 79 1053 26 1110 21 739
7445 -0.87681859958701747 1.865301858942253 2.4927329184607334 55 110 58 0.31672468257399866 79 1090 26 1116 21 1044 28 1373 64 1714 76 1702 53 986 93 1641 18 931
7446 -0.1534903858842909 2.2699145218430949 2.3738459382621557 53 94 47 0.26237289624134924 79 813 26 1125 28 1780
7447 -0.36227870027090864 2.218808223651215 2.37697267258728 127 139 99 0.22140049120516511 60 1946 26 1127
7448 -0.67059156158749533 2.0540280368516952 2.4521294078700788 52 103 54 0.31216355825787567 79 1092 26 1132 21 1055 64 1707 76 1691 53 985 93 1640 18 1090
7449 -0.67448200362377553 2.0581538799756616 2.4717852965131342 124 132 89 0.24324859642324664 60 1715 26 1136
7450 -0.6626174721592436 2.0691282597194398 2.4825648586951998 134 135 95 0.1573322760053934 79 1098 26 1140 21 1203 64 1708 53 1142 93 1806 18 1092
7451 0.10702322783281078 2.3601863288772651 2.5390201572850777 218 223 239 0.4548834032135971 85 1772 26 1149 21 1075 60 1196
7452 -0.32727096922826127 2.3530441921506244 2.5924845027173018 214 221 238 0.89710607015187371 79 464 26 1170 28 1684
7453 -0.96851399924421844 1.9466495686698364 2.8241579835013395 178 180 189 0.49892652857567005 60 1743 26 1174 21 1105 28 1682
7454 -0.93098917196824793 2.0764318761450804 3.3164603128761732 0 0 0 2.5493060337530817 26 1182 21 1110 28 1695 8 1534
7455 -0.028137453773678316 0.71635416566332166 1.8957667710715294 189 181 128 0.1776581032766392 79 1144 26 1192 21 1121 28 1711
7456 -0.24564236403036954 0.56704789491418339 1.9673983710935552 113 118 76 0.27621923540101728 79 1298 26 1193 21 1123 53 1179 22 1186 96 801
7459 0.21337060634248606 0.88031803965291744 1.9430112417799412 45 89 50 0.24309862789853159 79 1148 26 1199 21 1129 28 1499
7461 0.18550520433729617 0.98766087704827865 2.1574529320008899 162 162 116 0.051963247630204129 79 1167 26 1210
7462 0.25309517160103018 1.0878765986624255 2.3177230709837686 161 155 105 0.11905378110777652 79 1181 26 1219 21 1153 28 1738 53 890 93 1548 18 827
7463 0.15958551288522671 1.0520748764906294 2.466292649527122 75 115 72 0.59171470667765469 60 2044 26 1226 21 950 28 1741 53 905 93 1302 18 844
7464 0.14664820925750549 1.1177630074631852 2.5432716936415236 174 181 194 0.52696728103397639 79 1194 26 1228 21 958 28 1563
7465 0.080295124501784873 1.0797065099196357 2.5575036293505624 170 156 138 0.55671975352422609 79 1197 26 1230 21 1263 53 1086 93 1567
7466 -0.36723593689610678 0.90213493812896506 2.6694117459248523 165 162 169 0.12504298943383307 85 1902 26 1232 28 1747
7467 0.30946970643559013 1.886330365400374 2.3152594048189643 177 159 125 1.1698321713705599 79 1326 26 1243
7469 0.1027819813303756 2.2855890374414396 2.3502209283328734 50 85 42 0.34424706234873903 79 1041 26 1274 21 1188 28 1882
7470 -0.55269508376403265 2.1087719990381171 2.3845793994266296 84 107 69 0.26209291937032303 79 1083 26 1277 21 1192 53 1129 93 1632 18 916
7471 -0.097213328591248788 2.3009740415306568 2.4497991127620611 80 170 100 0.29429537688859553 79 1080 26 1286 21 1204 28 1793
7472 0.18363303128124397 2.376780442627636 2.4954864832284707 226 234 252 0.28317102585449561 79 1070 26 1289 21 1209 28 1897 53 975
7474 -0.58253366809447893 2.1645290357823694 2.5204744098389029 205 197 199 0.24920690432840553 79 1370 26 1299 21 1217 28 1799 53 1149
7475 -0.96058859893641557 1.8953013286105038 2.7063387898296609 86 60 38 1.6152568423275933 60 1976 26 1302 21 1220 28 1801 93 1683 53 1029 18 971
7476 -0.31900419541141461 2.3121338941599872 2.5537143279761461 191 192 203 0.22764015484824818 79 1275 26 1309 21 1221 28 1807
7477 -0.32122248969920375 2.3170390283764104 2.548914319467622 191 192 203 0.16664655621330324 60 1729 26 1310 28 1806
7478 -0.64636176447958726 2.1926853629585064 2.655134519582643 175 174 179 0.66349846511539901 79 1126 26 1311 21 1223 53 1163 93 1823 18 1110
7479 -0.02782064085725737 0.76153488535726777 1.954024320670837 141 147 103 0.4941667240172965 79 1301 26 1324 28 1830 64 1925
7480 0.32407539236405414 1.0386921077074682 2.1395679032396182 166 165 119 0.040041841174732612 60 2177 26 1335
7481 0.0522061887254269 1.0100126775171212 2.4520609031153047 83 133 83 0.59669803058037563 79 1321 26 1347 21 1259 28 1852 53 1204 93 1863
7482 0.31761383136191979 1.1181184761365435 2.4256677925546111 51 112 62 0.84771259025599566 60 2193 79 1187 26 1348 21 1260 53 1081 93 1743 18 1142
7483 0.38322471991315216 1.1386303765425279 2.4250151996428548 67 114 68 0.6195896263515146 79 1185 26 1349 21 1158 28 1853 53 1202 93 1862
7484 -0.74527818089363174 1.9126075169080001 2.4423679198923538 179 186 104 1.8628369944412053 79 1451 26 1369 28 1615 64 2150 60 2362 53 1383 93 2043 18 1330 14 976
7485 -0.033429215284407232 2.264667778284251 2.3431226237050331 44 76 39 0.12648476924790936 79 1236 26 1371 21 1284 28 1881
7486 -0.74555367998508781 2.0054162715484218 2.5536913414703442 62 111 64 0.3071752081004977 79 1368 26 1387 21 1299 64 1884 53 1251 93 1809
7488 -0.9581181364604795 1.9366305620265063 2.7625769025207423 197 199 210 0.33168259677223472 60 2152 26 1397 21 1313 28 1898
7489 -0.36867197921843853 2.3307068580298798 2.6081594771319083 128 108 88 0.45090789686873833 79 1374 26 1400 53 1338
7490 0.26377220733421486 0.57541569779961466 1.5776816393951292 197 174 157 0.75671443558773488 79 1387 26 1406 21 1318 28 1907 53 1170 93 1695 64 1905 18 984
7491 0.22449560714390104 1.0055723314012686 2.1510180448297844 40 83 43 0.42453328740844692 79 1408 26 1418 21 1327 28 1924 93 1851 18 1131
7493 -0.79396063895447966 1.4836542825092158 2.4621584341527578 253 244 248 0.40897993910152541 65 1362 26 1444 28 1938
7494 0.12571512621873782 2.1696625749111838 2.3054565183138021 99 185 102 0.51068720007219659 79 1339 26 1450 64 1815
7495 -0.5870016775733512 2.1047902996178518 2.4276998023507135 147 146 105 0.22047025197992659 60 2260 26 1459 21 1352 28 1949
7497 -0.52469404692448118 2.159426439177111 2.4237752141811377 50 98 52 0.41317458451597716 60 2261 26 1461 21 1355 28 1952 53 1327 93 1911 18 1188
7498 -0.67363284820911207 2.0755486498580327 2.5178759325345368 52 113 63 0.59237555140701104 79 1458 26 1467 21 1360 28 1957 64 2006 53 1334 93 1995 18 1275
7499 0.22528434213617871 1.0593369207825634 2.2859324942103334 42 81 41 0.60247807888746596 79 1474 26 1498 21 1391 28 1996
7500 -0.16508948953581021 2.1932090641166426 2.3126984301046773 248 237 154 1.3945319206794708 79 1552 26 1513 21 1442
7501 -0.28325562654748304 2.3261994514996136 2.555513983702046 115 92 71 0.6906546457151933 79 1459 26 1519 21 1407
7502 -0.98027853720933689 2.0935062093833898 3.3261432791616952 237 247 255 1.5604972932582939 8 1918 26 1522 21 1410 28 2054 53 1399 93 2055 18 1339 80 1112 75 1087 69 1237 46 1117
7503 0.04008003480800458 0.6159050497455586 1.770315381479743 179 173 119 0.50195160913638692 79 1514 26 1526 21 1414 53 1348 93 2006 18 1287
7505 0.38829713392935661 1.0872358574538656 2.2769677908443433 107 112 74 0.94454520078425597 85 2455 26 1543 21 1428 28 2033
7506 -0.48590595483924609 2.2042379594432782 2.4184642911405785 162 167 123 1.0286850320053151 79 1558 26 1558 21 1445
7507 0.29102934358280047 2.6091653467732581 3.0375675162712579 255 255 255 0.76599575699432698 85 2479 26 1561 28 2098
7509 0.06125684081424887 0.95351661130891452 2.224517094440762 127 138 95 0.60275680613796923 79 1573 26 1573 21 1466 28 2069 64 2177 53 1455 93 2113
7510 0.059873942100329688 0.94929317782572176 2.2287388124526917 127 138 95 1.1608365087704116 60 2384 26 1574 21 1467 28 2068 64 2178
7511 -0.66152747946111035 2.1141195298409894 2.6016097731976284 179 175 179 0.98374959483861502 79 1641 26 1639 21 1531 93 2161 18 1440
7512 0.042618709323768642 2.4014502469563945 2.6092247265867976 0 0 0 2.552297357686323 85 2590 26 1640 21 1518
7514 -0.092804815441979591 0.68520115200112175 1.9117872892067613 30 55 28 0.26279006480533507 79 59 83 1512 85 1406 60 1368 26 69 53 65 93 777 100 844
7515 -0.4295567490253871 2.195335130652301 2.3853676786073779 62 124 67 0.27282636826989087 85 2038 60 1949 79 1085 26 1129 38 1046 100 1726 65 775 21 1051 28 1629 53 733 93 1414 18 690
7516 -0.31915970323793064 2.2878370570651851 2.4712264423695807 248 237 238 0.42544035054076867 35 1820 59 1860 100 1750 85 2047 65 1040 8 1525 26 1145 60 1716 79 853 21 1073 28 1652 53 388 93 1083 18 346 76 1247 75 744 40 743 45 1190 69 805 11 817 46 576
7517 0.046686745700365809 0.84831710663845239 2.0327090658656397 27 51 27 0.18037972309395695 60 2014 79 1156 26 1200 8 1360 85 2106 21 1132 53 856 93 1518 18 805 75 605
7518 0.10464368747347412 0.87334186894034072 2.0239610505848069 50 98 52 0.24456704562244141 60 2013 79 1153 26 1201 100 2067 65 1090 8 1584 21 1133 28 1718 53 1054 93 1517 18 804 80 644 75 607
7519 0.23655788572888509 2.556194149307871 3.0094198647767039 255 254 255 0.47920532575696678 83 1381 60 1283 26 917 59 1871 38 1074 85 1801 21 853
7520 -0.034684659542215508 2.2655501944328909 2.3418683301603411 80 161 91 0.41923627680436654 59 1840 38 1041 100 1996 85 2025 65 1205 8 1778 26 1370 60 2111 79 1237 21 1283 28 1880 53 1114 93 1606 18 890 80 987 75 954
7521 0.05782964003066432 2.3372454272847638 2.5099626218844491 122 100 81 0.16046484061395103 65 813 8 1325 26 863 100 756 85 723 60 647 28 1431 80 607 75 568
7522 0.26238337722208488 2.5909578030745073 3.0584481256022089 211 198 187 1.5487599761254784 35 2543 100 2505 82 1308 8 2017 65 1565 26 1631 60 2514 79 1636 21 1519 28 2124 53 1493 93 2149 18 1428 64 2262 80 1204 75 1179 45 1592 40 1560 69 1320 11 1294 88 877 46 1210 5 955 15 849 32 834 44 866 42 708 91 844 46 1205 4 967 71 624 48 630 58 529 24 640 89 420 92 634 98 476 20 425 57 643
7523 -0.12864953263209508 0.92924560791380162 2.3739545667809243 156 163 118 0.21013988439714604 79 980 26 1000 21 939
7525 0.1871941504057702 0.66677095985511114 1.7329418871950326 197 192 138 0.56853096660963309 34 2322 77 2492 100 2197 3 1874 16 1253 95 1279 72 1373 35 2247 12 1763 38 1551 63 2043 85 2259 43 2209 61 2396 76 2153 65 1244 82 1060 26 1187 60 2160 79 1131 21 1114 28 1705 80 794 75 790
7526 0.24738522697435339 0.58303334253488237 1.595659467379194 255 255 252 0.46455288985541648 26 542 21 6 28 1159
7527 -0.046790432755465988 0.46375612469917277 1.6711402391986341 220 224 239 0.26595243327138968 79 506 21 12 28 688 53 6 93 728 18 7
7528 -0.081573277326085075 0.47270713390897479 1.7196542164115256 201 199 206 0.19463703907501631 26 16 79 15 21 19 53 13
7529 0.16954688168017429 0.60904305239853929 1.6815976487676809 106 150 94 0.52745268604548068 26 18 21 21 28 694
7531 0.32888374879721349 0.68709962873201658 1.7097979226263533 143 167 117 0.22442958305239535 26 27 79 18 21 27 28 38
7532 -0.0088634386792074554 0.60116414166629428 1.7881043563977599 190 180 125 0.10379023146311638 26 42 21 34 28 50
7533 0.10843357797378612 0.72783643168399925 1.8080361487187333 98 135 81 0.58309991518072257 79 40 21 47
7534 -0.12555667318858721 0.62759779975445651 1.8797267811689735 168 163 113 0.15241586871535928 79 46 21 48 53 54
7535 0.60149070864343401 0.89182920587017978 1.8156012647531867 152 150 156 0.02938684257485185 21 51 64 66
7536 -0.17085590103903936 0.61428258314951367 1.9102573506767471 53 106 57 0.13234300446291569 79 549 21 55 18 491 93 1210
7537 0.16571741221956915 0.78518645107703477 1.8513327387465142 54 101 55 0.24843200444011684 65 65 21 56 53 58 93 771 80 41
7540 -0.14464481261246193 0.68213251765178651 1.9637258852553621 170 165 113 0.090424904509139606 26 80 21 70
7544 0.041270499438990416 0.82222764962020645 1.989941876617952 42 83 45 0.077935328238567067 26 88 21 82 28 755
7545 0.041270499438990416 0.82222764962020645 1.989941876617952 42 83 45 0.077935328238567067 26 89 21 83 28 756
7546 -0.25168294543514186 1.8145880567983041 2.3452931238729819 0 0 0 0.16279606218994896 43 1174 97 118
7547 0.20560765346818283 0.90787275596085337 1.9945149127992816 42 83 47 0.024536663071459717 60 878 21 88
7549 -0.28926549138142887 2.0536346553301392 3.2873200715436641 0 0 0 2.6143198782330961 49 1234 82 343
7552 -0.031106669068087345 0.82895134809140303 2.0657805292595399 167 168 122 0.19607033830416534 65 99 79 100 21 97
7553 -0.35496379047002896 1.8371249439026622 2.3453476809225742 0 0 0 0.28774409900023001 33 227 35 1279
7557 -0.20466112737984499 0.79898584593271205 2.1983271040422814 45 85 43 0.015245601651489483 26 121 21 109
7560 0.30424355355578742 1.0591145278157517 2.1887101198217205 146 148 107 0.031727030300362606 79 129 21 127
7561 0.38240394332996208 1.5695406575393092 1.9838174146503742 254 245 211 0.45721348433608439 26 160 79 152 21 138 64 196 53 126 93 232
7563 0.081589020691847883 1.0044078162779118 2.3098096559961934 42 82 43 0.03368737066682418 26 165 21 151 28 838
7564 0.18968347651438905 1.0538189855887723 2.3048523104186143 42 79 41 0.014107209206729285 79 174 21 157
7565 0.0089593663258787926 0.98875412425579223 2.377666605095988 58 108 56 0.22285983434410539 79 192 21 173 53 177
7567 0.32701717707593941 1.1276728766381801 2.4219528273069422 55 111 62 0.16442467124514418 26 206 21 180 28 1293
7568 0.062543181963929592 1.0446258706170686 2.4927844443642111 106 85 64 0.49007089373644636 26 712 60 336 21 184
7569 -0.0083357468629867218 1.0229395556656231 2.5411340456261207 99 89 65 0.84440037525636369 26 216 21 188 28 874 53 627 93 916
7570 -0.3298018595361138 0.89164274285990353 2.5708393755631582 182 183 193 0.20631936011549487 26 214 21 189 53 204 18 191
7571 -0.086892437394579664 2.0414952036952956 2.3087367869871995 108 181 96 0.014548625270170345 26 313 21 253
7572 0.034458949391254032 2.1004496657122624 2.3034728295878435 105 187 100 0.13070785439862714 79 742 21 256
7574 -0.056764945607832511 2.1054332557680402 2.3160296471870101 107 180 99 0.14294326188479189 26 790 21 266
7575 -0.056764945607832511 2.1054332557680402 2.3160296471870101 107 180 99 0.14294326188479189 26 789 21 267
7577 -0.065074808439072721 2.1367104339046117 2.3066045919887985 103 177 98 0.09951423319098017 26 338 21 274
7579 -0.13680521395384695 2.1257509026869963 2.3114564146825929 102 172 94 0.10919423574496838 26 343 21 278
7580 0.06104324914675105 2.1932174604838002 2.30769094822513 255 255 166 0.15137381093799832 26 348 21 279
7583 0.11505502431338478 2.2530475928044273 2.3109031265155591 92 172 91 0.52766925126675923 26 810 79 763 21 290
7584 -0.2280992555151628 1.4284881372184008 2.8214326294756464 255 251 150 0.72852200751482576 60 471 21 291
7585 -0.46407146824161516 2.0305393352479042 2.3400586757681894 101 167 86 0.10823622086952962 26 355 21 292 53 306
7586 -0.47730352097677825 2.0458512767912391 2.3424461659556868 251 234 142 0.11091543946982314 26 364 21 294 28 973
7588 0.04551726031496571 1.5762742332703583 2.8028124473777303 99 163 88 3.2888743447093818 60 465 21 297
7589 -0.79207169163102598 1.8087900970085877 2.4496992143029725 251 238 139 0.086320973461311942 26 358 21 302
7590 -0.02404675798626605 1.5482552540098682 2.817255147217403 90 158 83 2.5048026215024399 60 1075 21 305
7591 -0.86712729905274055 1.8584239063686119 2.4576502399216444 180 186 106 0.55529015590004871 26 374 60 1200 83 1897 21 315
7592 -0.8672537622145795 1.8657217331198215 2.4822810481240469 142 139 96 0.22064774886758257 60 673 21 327 28 987 64 608 53 378 93 589
7593 -0.80249785161643961 1.9232994859979275 2.4624106515755981 44 86 46 0.22111805842340504 26 393 21 330 53 368
7594 -0.36892104775465984 2.2032381506798711 2.362750351527616 42 78 43 0.069657333374304339 26 403 21 331 28 1010
7596 -0.33437777911401173 2.2243690302319812 2.3698043473635626 183 189 145 0.041900671452052549 85 716 21 342
7597 -0.81081396430421127 1.9368841144943123 2.4967768100406103 51 101 53 0.23246630939469201 79 436 21 349 64 614 53 393 93 1091
7598 -0.14000046776818542 2.2855124016861712 2.4120057400820683 66 125 67 0.044553272696795855 26 421 21 355 28 1404
7599 -0.14000046776818542 2.2855124016861712 2.4120057400820683 66 125 67 0.044553272696795855 26 422 21 356 28 1405
7600 -0.37970430794799342 2.228895065272857 2.3986376409287162 52 98 53 0.087775283807480009 60 681 21 359
7602 -0.48503130354670482 2.1920899996159982 2.438062870507423 51 101 54 0.25312548351113001 60 701 21 373 28 506 93 572
7605 -0.86858186306687413 1.8926083999579526 2.5885189420425574 138 138 99 0.12692518101864728 26 435 21 379 28 1041
7607 -0.19548824743729065 2.4540456101279879 2.3398908537136109 193 182 180 1.1990087701235881 26 453 21 383
7608 -0.55470563919970528 2.1620916594293327 2.4794043547785063 140 143 103 0.14917576622763898 26 446 21 385 28 1054 53 397
7609 -0.31815362631636457 2.2711743769883062 2.4692575726076988 67 123 73 0.81782587498976977 26 864 60 1226 21 389 28 1420
7610 0.1613303053222569 2.4007083964025724 2.521271971048793 83 63 44 0.10774898618582578 26 467 21 394 28 1444
7611 -0.403450277883182 2.2680795675289396 2.47829537187588 219 216 224 0.15715531703380972 26 877 21 395 28 1423
7612 -0.31726886354487377 2.302311159335912 2.4753051949415035 108 89 68 0.55511253862424814 79 438 21 397 53 395 93 1432
7613 -0.53022339146233244 2.2164412599522243 2.48733025476999 208 191 179 0.36073749369370112 26 464 21 400
7614 -0.80860568305195535 1.9585094058743577 2.6201176024808386 162 155 157 0.6716302499357153 26 456 21 402 28 1059 53 441 93 1120
7615 -0.89410398703259131 1.9251964097838803 2.6303821416410398 117 90 64 0.14885421402590157 26 457 21 405 28 1413
7616 -0.87748138052512603 1.9208481337120573 2.6435495918600513 186 186 198 0.07885696682120423 26 458 21 407 28 1416
7617 0.20644192556946844 2.4109928714105702 2.5665521392625981 69 47 17 0.3208026142399833 26 474 21 409 28 1121
7618 -0.603354676559267 2.1548658807633188 2.5508483466424301 168 164 169 0.97082704053478575 79 458 21 411 28 1073 18 731 53 1012 14 262
7619 -0.58227394273902477 2.1902400403729256 2.5542852260486142 55 45 34 0.13861916103650099 26 481 21 422 28 576
7620 -0.86670190813016168 1.9514874714444737 2.6662517163163155 106 80 56 0.16294292830615986 26 473 21 423 28 1082
7621 -0.64860126035983945 2.1463107002932675 2.5780346507763601 199 200 210 0.19129123226021957 26 484 21 425 53 785 93 1465
7622 -0.92441668920890463 1.9369366706645721 2.6828779957182611 105 83 63 0.117383159163833 26 479 21 428 28 1090
7624 -0.28612747865568533 2.3422193968982117 2.5743444614881246 189 198 216 0.45686275406183841 8 608 26 903 21 439 28 1456
7625 -0.5834595619627917 2.2125925629662828 2.6229189021941783 157 163 177 0.069392479152229028 26 512 21 450 28 1119
7626 0.26170963747702025 2.456854534304838 2.6875286456974981 81 57 30 0.33739002684780939 26 910 21 452 28 1690
7627 -0.44040981572704974 2.3160477904770316 2.5989504052665637 84 63 43 0.24631161664557022 26 909 79 481 21 453
7628 0.20958562056458341 2.4607223292003999 2.6875860218703655 114 105 98 0.58414517094828244 85 765 21 455 93 636
7629 0.25833551976641167 2.4618341737756713 2.7260273931510692 87 64 35 0.29191225799431225 26 912 21 459 28 1691
7630 -0.98333929028701195 1.9396461714487956 2.8063118315231779 85 62 38 0.056438052508266605 26 519 21 464
7631 0.22737026680140743 2.4766508218140353 2.7504945486134025 199 202 214 0.088060467146259647 26 528 21 465
7632 0.10946586495540804 0.49357989104570588 1.5813171910595945 61 43 22 0.23057371404855612 26 922 21 476 28 1698
7633 0.30195005490930521 0.59573270197068684 1.5903080964140419 123 101 80 0.57663848686026475 26 3 21 478 28 1160
7634 0.25723519151013602 0.67883778286493557 1.7195965592813087 206 202 144 0.049530566174433271 26 28 21 489 28 699
7636 0.076714947978709272 0.69977898350257095 1.8090570283715972 59 113 60 0.12272613098497816 26 570 21 498
7637 0.34670953740687854 0.84422023312580119 1.8341180502457139 185 185 136 0.13294230762332593 79 543 21 508
7638 0.28144858424871116 0.84078609643223978 1.8565821706182142 68 111 59 0.0095662373259158915 26 587 21 514
7640 0.002921040595052507 0.76785077098541399 1.9397094442918676 43 86 48 0.28332404786472826 8 687 100 1404 21 523 18 506
7641 0.44735451000024667 0.909435202474419 1.9135446261504683 60 104 54 0.17909313322078346 26 597 60 856 21 529
7642 0.14133461824617738 0.91143140734912875 2.0572053531959593 150 154 112 0.059399820703567183 26 627 21 552
7643 -0.23520976804468013 0.77659974006452737 2.2009502646270795 69 102 57 0.098600579321740808 60 1425 21 569 28 1229
7644 -0.23341357033732485 0.77372844110690575 2.2033435412201232 69 102 57 0.18423567904882945 60 1426 21 570 53 869
7645 -0.11480406291743539 0.84417275851126294 2.1927205302050954 164 163 117 0.16704117690670212 26 648 21 572
7646 -0.012120924053122789 0.90183359764851923 2.1831907081322774 43 85 46 0.067565205105337492 85 1478 21 575
7647 0.24568338994586453 1.0283961999544826 2.1741527673735725 154 155 113 0.033015032343140856 26 654 21 579 53 118
7652 -0.16022409950785149 0.86567265479480326 2.2723131251497315 43 84 46 0.090122747408569667 26 663 21 593
7654 -0.0105932970625323 0.95529127528762192 2.291366305916898 42 81 44 0.15778057353290081 26 673 21 598 53 596 18 570 93 1280
7655 -0.010418519652101013 0.95498817192639118 2.2907299901603166 42 81 44 0.060324458885296695 26 674 21 599
7656 -0.26174457295478087 0.82785768792352821 2.3582728272071862 45 93 50 0.062454054714610789 60 1467 21 607
7657 0.24620312942964889 1.0740165038021594 2.2967659289654034 46 80 42 0.057990949366612449 26 685 21 611
7658 0.19347795164272852 1.0501329744880441 2.3070307929473151 42 79 41 0.036186531306493991 26 686 21 612
7659 0.19347795164272852 1.0501329744880441 2.3070307929473151 42 79 41 0.036186531306493991 26 687 21 613
7660 0.18009126571700157 1.0621273921740335 2.4060662171790641 124 144 102 0.22426143150927658 26 200 21 623 28 1290 53 182 93 899
7661 0.05736811796289891 1.043152018403148 2.519449992513819 133 124 99 0.27382869142173089 26 713 21 630 28 1296
7662 -0.37361644490588058 0.88712554629867568 2.6421503207238493 89 73 42 0.1716494417680777 26 720 21 640 28 887
7663 0.5187615287187245 1.2732651728374382 2.5671744479629108 104 103 54 0.17260214053391421 26 723 21 645 28 1572
7664 0.49457423190079358 1.2891011820973244 2.5754240794284899 220 228 247 0.068822964256433597 26 725 21 648
7665 0.53779229352422797 1.3002015455820879 2.5804833688815383 119 95 64 0.19106465461715452 26 237 21 649 28 1313
7667 0.14980929630002277 1.8411991149419873 2.364646737969331 235 254 142 0.3000794563087209 26 1042 21 671
7668 -0.043248219809199517 1.9332133276926298 2.3201310663333397 125 200 101 0.11412891959296093 26 761 21 679
7669 -0.83020581626942513 1.4839824470763001 2.4759651616379879 237 229 232 0.29816169979596413 26 756 21 684 28 329
7670 -0.21009680059452968 1.9042278478061077 2.3267411041533257 124 195 98 0.075550664204281651 26 768 21 690
7671 -0.30829257403043603 1.9151010025313782 2.3268921619042295 163 209 109 0.15845246993307111 26 774 21 695
7672 -0.20770643780523168 2.0135615557574664 2.3091717035926265 103 183 95 0.22568135372145459 26 779 21 698 28 946
7673 -0.71156238305906194 1.6612025723705179 2.4564693563890923 249 250 142 0.023848693375077876 26 778 21 701
7674 -0.26123638430867957 1.3797739455348035 2.7789077656489707 121 189 92 1.4437596048563517 60 1564 21 704
7675 -0.38916165104660261 1.345319930192713 2.7976332800921146 116 183 88 0.24680815383330243 60 1579 21 707
7676 -0.28999539652661466 2.0744919646191651 2.3156259907216059 105 175 94 0.11804186114149433 26 800 21 708
7677 0.036103222054522988 2.1839322118387003 2.3171714735825133 240 235 151 0.037069498211188913 26 803 21 714
7678 -0.63197428562166835 1.92252586091583 2.3859117985516378 110 172 87 0.056101258269368355 26 807 21 718
7679 -0.099049344847977117 2.2181373873130821 2.3190641665517036 83 159 85 0.05582516735782337 26 1104 21 731 28 1370
7680 -0.4290556155290432 2.1157850817163091 2.3365466202832268 84 146 80 0.37478819915755696 77 1914 21 735
7681 0.065293328855222502 2.2882397319565961 2.3734132997725097 60 104 52 0.10645773913415903 26 832 21 748
7682 0.013782400750560725 2.2989940059877592 2.408750852315269 90 155 95 0.56831334704470915 26 1131 21 762 28 1639
7683 -0.91790571934570409 1.8334061007990665 2.5399137706617361 139 137 90 0.14665753299369741 26 837 21 766
7686 -0.50570318120696289 2.1668282713101124 2.4083092508663886 46 89 47 0.13591966065796179 60 1703 21 773 28 1389 53 746
7687 -0.11817507050626844 2.2882968998505535 2.4267174142411196 182 194 148 0.17479273948919782 26 849 21 774
7688 -0.26874897992270358 2.264346425343668 2.4094394734408189 59 108 56 0.10179326376430527 26 851 21 778 28 1401
7691 -0.89715130648638031 1.8794650172017444 2.5839228935224039 139 136 97 0.66850525853248277 26 429 21 785 53 427
7692 0.091055544285614062 2.3385212195179745 2.4908143110871763 126 107 86 0.4341528520506987 79 382 21 787 53 738 93 1050 18 316
7693 -0.48785462946763264 2.1974513767914856 2.4501239589898303 172 169 127 0.25392831433179136 26 859 79 432 21 789 28 1407 53 383 93 1082 18 349
7694 -0.53966838894835534 2.1711934116026157 2.4729128092704671 48 95 50 0.50768265276742575 60 710 21 793 28 1410
7695 -0.29574647265778564 2.3149664457899339 2.5162815608265237 103 84 65 0.038258523925818154 26 884 21 810 28 1107
7696 -0.35530435411106914 2.2998758829714601 2.5188889304222313 97 76 56 0.10109121565949319 26 1159 21 813 28 1667
7697 -0.95143471373960775 1.9184969468386639 2.6962584551115483 168 168 178 0.21790029454262066 79 896 21 823 64 684 53 806
7698 -0.58450634748899444 2.2028092588410368 2.58958209608394 56 36 18 0.10236674751471124 26 901 21 829 28 1113
7700 -0.42594804143636494 2.3015023425033636 2.5845344657848996 81 57 34 0.36147809808552472 26 510 21 836 28 637
7701 -0.68801277255804838 2.1510604031632647 2.6630735637282008 90 65 39 0.63489345555698606 26 515 60 1279 79 897 21 841
7702 0.14402957638919378 2.518073816948792 2.9565471953113285 139 129 120 0.95935827196008783 26 916 60 1282 21 852
7703 -0.97638529528540963 2.0618105472756407 3.1878496520478898 190 177 170 0.30874825239629283 60 1288 21 856 28 1470
7704 -0.039311305770866868 0.50949082106412846 1.6445571288549548 155 113 83 0.64762272271008625 26 546 21 868 28 1165
7705 0.12800405278154903 0.72473071564241398 1.7810138561429794 61 111 62 0.26954787788664913 26 939 21 878
7706 0.29107962003515758 0.90876069298905537 1.9457143394258787 178 177 129 0.58230978329931526 8 1582 60 1781 83 1962 21 895
7707 0.19810232674499029 0.98323179964816587 2.1309510907430638 42 79 43 0.046163307318168117 26 977 21 911
7708 -0.27256078715745896 0.73979707255554039 2.2220197924112419 46 95 50 0.35454906815842435 26 975 79 959 21 913 53 874
7709 -0.0036831397361825544 0.91574127492976998 2.1998282378322447 41 81 43 0.022637596862013734 26 982 21 918
7710 0.25943244856054881 1.0786312797108226 2.2420266114376406 132 140 94 0.10539170559124192 26 991 21 927
7712 0.010389493265377692 0.96625992148048678 2.2971344534092619 43 84 45 0.11200423113441946 26 994 21 931 28 1539 53 886 93 1546
7713 0.34824508855625458 1.6900421618414987 1.9481849417815837 98 76 55 0.030077623846859948 26 997 21 933
7714 0.25680517377324208 1.0889345180970169 2.3509267326754495 47 91 49 0.420917871745495 60 1468 21 942
7715 -0.18013570473500989 0.9129718845259126 2.4000612567439483 43 91 49 0.1502935781524512 26 1005 21 944
7716 -0.15420084307552118 0.92483195060809031 2.3993595438691848 126 139 96 0.041710660015500306 79 981 21 945
7717 0.037473555226990765 1.0026406077067327 2.3925969358608405 49 104 57 0.21160257952146339 26 1006 21 948 28 1552 53 606
7718 0.45752819574895381 1.1606712619961836 2.3929163070674839 65 88 54 0.22431730743175649 26 1012 21 949 28 1291
7719 0.4098536198788072 1.8117805888716052 2.2011933561495818 255 255 255 0.85009364820615885 60 2059 21 961 28 1861
7720 -0.80488493792041971 1.5230767687496241 2.4829954521294413 144 115 77 0.46103177147752178 26 1250 21 996 28 1759
7721 -0.29763600324646744 1.9297322307359812 2.3281738317979581 115 190 95 0.086633111804770638 26 1066 21 997
7722 -0.2345561506663722 2.0446469562289566 2.3022747560093526 236 239 145 0.189082748090391 26 1072 21 1002
7724 0.040990225579335099 2.1297854945159207 2.3060128581164916 251 249 159 0.0080500235684541118 26 1256 21 1004
7725 -0.46734575351185409 1.926299766847686 2.3537431835104923 253 245 143 0.021617016384726739 26 1073 21 1007
7727 -0.23746279128411085 2.0666236719406492 2.3088016017069162 108 180 96 0.10945632461439965 26 1076 21 1010
7728 -0.005799929406542309 2.1470838000423362 2.304539292788685 106 181 101 0.23321592856833667 26 1078 21 1011
7729 -0.21391763523302137 1.4369623308935182 2.8284538817135791 98 166 83 0.81519567972464479 60 1585 21 1021
7730 -0.71751543891172775 1.8739732629511914 2.4135157679192498 212 214 122 0.0497715995629439 26 1088 21 1023
7732 0.0048506416471101182 2.287571497705831 2.3676306728752947 59 108 56 0.21952510065333111 26 1121 21 1041 28 1631
7733 -0.35110940403629876 2.2100654066095746 2.3624484996492372 38 67 35 0.65085773225875421 79 831 21 1043 53 721 93 1043 18 683
7734 0.17369126559007642 2.323132815658818 2.4294438966429621 74 150 86 0.14362539446782902 26 1128 21 1047 28 1790
7735 -0.42996899631800861 2.1953492392189773 2.384874833808921 46 89 48 0.11769548228019915 26 1130 21 1052 28 1630 53 734 93 1415
7736 -0.16022925619276945 2.2794522215648798 2.4056397867965189 185 193 146 0.15443769277825767 26 1133 21 1054 28 1783
7737 -0.080847384426631308 2.2976931526176019 2.4306841752393815 172 192 145 0.12629483564799973 26 1138 21 1059 28 1643
7738 -0.53073741527125284 2.1641422259412355 2.4405817765538371 47 91 48 0.3475497936345292 79 850 21 1061 53 756 93 1080 18 345
7739 -0.91873717811896172 1.8524289071276363 2.5837404328933413 135 133 91 0.13135252350851845 79 869 21 1063 53 1005
7740 -0.833286264511509 1.9143235135261227 2.5728772982302281 117 125 88 0.31674474278951331 26 1139 21 1064
7741 0.16579736339350953 2.162847270995536 2.700049886833054 229 236 254 0.94690244785178146 26 1143 21 1070
7742 -0.31812849420331418 2.2863754338069264 2.4743314257963425 243 241 249 0.15220987402561401 26 1146 21 1074 28 1651
7743 -0.54914986632499529 2.1892475230338131 2.5080099875521946 203 195 197 0.16339121846870117 26 1148 21 1079 28 1648 93 1447
7744 -0.13764263731761175 2.3471693173655925 2.5402064253328058 231 236 252 0.40556057082684904 26 1160 21 1088 28 1805
7745 -0.67094750048713947 2.1399795526730054 2.6430875082731724 166 158 160 0.24275354089915249 26 1166 79 892 21 1097 28 1675
7746 -0.55103422005933933 2.2395979679632232 2.6455488054931386 180 181 189 0.9380663810615647 26 1172 21 1102 28 1681
7747 -0.17759738861985996 0.69645739167855503 2.00896012589065 114 131 85 0.2457252720293015 79 1151 21 1130 64 1761 53 1052 93 1712 18 999
7749 -0.21626233478940449 0.82086283851768571 2.2434692397609317 43 81 41 0.050785974757157147 79 1170 21 1146
7751 -0.22515194742074762 0.87788373742414783 2.5164731704934913 60 111 64 0.17386580330055201 26 1225 21 1159 28 1740
7753 0.38897676119945856 2.0746821391868453 2.3710627315711914 1 0 0 0.28917468626067194 26 1253 21 1178 64 1623
7754 -0.26645652980895701 2.0069588494055002 2.3268598494410013 112 182 95 0.38847200334853588 26 1363 21 1180
7755 -0.061783888338479316 2.1188880518204756 2.3023136276100837 105 180 98 0.13943381816577444 26 1258 21 1181
7756 -0.40093508584025644 1.3565332627305637 2.8124704969818834 246 239 138 0.43500761918376535 60 1883 21 1183
7757 -0.6674862317857706 2.0239893655598595 2.409384064114811 46 103 56 0.39404534658473728 26 1118 21 1191 28 1772
7758 -0.0087562568724622869 2.2912243455744905 2.3964525210924386 66 126 69 0.31538888024627748 26 1282 21 1193 28 1885
7759 -0.87608730994152217 1.8813396503445652 2.512348165638763 139 138 95 0.28214187587400513 79 1266 21 1196 53 1141
7760 -0.022277535615482194 2.2946278130089066 2.4292319446386186 161 188 139 0.28336595423631777 26 1134 21 1198 28 1788
7761 0.21609648960493139 2.3593156446600809 2.4538876411282029 249 253 255 0.6080218828363082 26 1382 60 2245 21 1201
7762 -0.23703424917990273 2.2860285798677871 2.4583317615695597 68 135 76 0.28084508480850323 26 1142 21 1211 28 1794
7764 -0.89177240883900188 1.9064011673276384 2.614568225186189 212 212 223 0.23689348543236102 26 1287 21 1215 28 1789 53 1154
7765 -0.51122082966778604 2.2203642818847236 2.5380749628465877 118 90 65 0.23448682536733761 26 1156 21 1219
7766 -0.98075654030453607 1.9555847405130311 2.9370541727079855 79 58 36 0.25664477968225757 26 1175 21 1225 28 1463
7767 0.29098844974168497 2.5424142268357195 3.004391764044426 0 0 0 1.2024598472137191 26 1480 21 1226 28 1819
7769 0.055975167274243301 0.69116688296017736 1.8332340817726507 116 134 90 0.30589472127086265 26 1318 21 1236 28 1708
7770 0.44963857122583734 1.0527986844195552 2.1405877422609669 208 205 143 0.18502112394767556 26 1334 21 1248 28 1845
7771 -0.97117491492971164 2.0394822676374349 1.6159774398232427 125 133 95 2.1455391698036852 60 2227 21 1254
7772 0.41390094599595595 1.7033772128743767 1.9570809545980128 209 178 150 0.3840198334636325 26 1430 21 1255
7775 -0.45651359104755829 2.1678568850869397 2.3641154516405516 76 95 63 0.1547640808252953 26 1375 21 1287 53 1125 93 1795 18 1078
7776 -0.83088073157926789 1.9228103913494872 2.5332039053045734 51 105 57 0.75343031736450539 26 1378 21 1293 53 1249 64 1718
7777 -0.7739240651911683 1.9647302003024525 2.5142038085755152 51 107 59 1.126339719314349 26 1381 21 1294 28 1884 93 1915 53 1331 18 1193
7778 0.2559824513818072 2.6325506098419793 3.1259180783198515 223 230 248 0.30729639891464128 26 1404 21 1317 28 1978
7780 -0.053794480325948038 0.72695109786200252 1.9271526385425761 42 93 50 0.57503908514927271 79 1400 21 1324 64 2024 53 1277 93 1843 18 1213 14 768
7781 0.047205619980709365 0.77512486706923245 1.918668868165452 173 168 118 0.41337718197592915 79 1401 21 1325 18 1214
7783 0.025391508534681653 0.94098901254644596 2.1871546492418292 90 112 72 0.24964009624511824 26 1422 21 1331
7785 0.46281923943773456 1.2563918477508824 2.521537529659899 206 214 233 0.27931736885795277 60 2348 64 1948 93 1867 21 1338 18 1144
7787 -0.7427231924033969 1.9913548175143858 2.4698734772886586 123 131 87 0.26598798750830516 26 1456 21 1350 28 1948 93 1992
7788 -0.52462444193898294 2.1594401857436427 2.4237822396514899 48 91 47 0.46655542929312893 26 1462 21 1356 28 1953 53 1326 93 1910 18 1187
7789 -0.14950056686903679 2.3000979455049118 2.4365480327533078 74 151 87 0.26705254925380822 26 1465 21 1358 28 2009
7790 -1.0154129647299619 1.8586664203241274 2.8612069176578814 0 0 0 1.2756683281801631 26 1399 21 1372
7791 0.44972696879385793 0.82150986333849474 1.7873644428769075 109 138 91 0.29094392692938875 26 1485 21 1376 28 1984
7793 -0.3627988343353642 1.7314319806619682 2.3885249847364172 243 246 137 0.15017641758573236 26 1548 21 1396
7795 -0.48286125516837974 2.1085523049532489 2.3609016267977427 214 210 132 1.2351681310885168 26 1515 21 1402 53 1380 79 1556 93 1982
7797 0.34856819890673474 1.9909763201968067 2.369627848249245 33 24 15 0.61212011707318581 26 1550 21 1434 28 2045
7798 -1.0287242357153024 2.0400044752470499 3.2496314467099321 199 184 175 0.69850807165641693 60 2370 21 1450
7799 -1.0287242357153024 2.0400044752470499 3.2496314467099321 199 184 175 0.69850807165641693 60 2371 21 1451
7800 -0.22314399660263923 0.74065243828395211 2.1435810676190368 129 134 89 0.13977361430054383 85 2499 21 1459
7801 0.51071754850821649 1.1083502035183581 2.2042462226744122 93 85 76 1.0677898486106179 26 1576 60 2442 21 1468
7802 -0.56095447678970212 1.8747991915112954 2.3835856135781008 189 207 113 0.00030263717393756354 26 1590 21 1481
7803 -0.63126659276272556 2.0649228920119382 2.4189354881927203 43 82 42 0.36546549503732462 26 1603 21 1490 53 1462 18 1381
7805 0.3804297880435884 1.7769034196128235 2.2008724932480934 201 197 204 2.5096778942305229 26 1613 79 1616 21 1496 53 1470
7806 0.33358702598364631 1.9121138755272948 2.2815850061338439 228 214 209 1.7496235133056526 26 1616 79 1627 21 1498 53 1473
7807 0.39646860371312331 1.6444422685643556 2.5437221655490805 245 253 143 1.3160965364164667 79 1628 21 1499
7808 0.41824670812726217 1.1852628669298269 2.6474358202473169 0 0 0 1.5485815192173753 26 1621 21 1511 64 2242 53 1485 93 2141 18 1421
7809 0.0301595258381014 2.28159289826025 2.3692634774848678 87 118 72 0.80266709343049347 26 1626 21 1516 28 2117
7810 -0.35230248413135756 0.64549272394279966 2.1796651783814474 92 70 48 1.0230039189472546 35 1470 100 868 65 82 8 89 26 104 21 102 60 897 79 112 28 141
7811 0.23726042746198306 1.1271778808223782 2.4929883240824795 170 174 186 0.84029587696695718 100 1525 26 714 21 629 35 321 59 1031 38 211 100 1025 83 293 61 1036 60 989 79 202 64 872 53 191 93 912 18 181
7812 0.32731276714154067 0.61228518381145636 1.5976850135246401 113 94 74 0.40749028631817552 60 1296 79 500 26 544 21 480 35 1848 59 1886 38 1087 100 1777 85 1808 83 1922 49 1669 43 1778 65 839 8 1340 28 1162 80 621 75 587 69 364
7813 0.20759410907520282 0.92214411622765913 2.0162096481051148 169 176 130 0.11813119559033196 79 574 26 620 21 543 83 1523 61 1527 76 1392 60 1393
7814 0.20829564351323776 0.92200137272386062 2.0166025979634474 161 167 122 0.13352118249804754 60 1394 26 621 21 544 59 1498 38 697 100 1432 85 1450
7815 0.042014619718575619 0.87299796282329822 2.0797005069440577 51 98 52 0.25780676723851664 60 1796 79 948 26 970 21 908 65 885 8 1363 28 1512 64 1562 53 860
7816 0.062951274222845396 0.61546121206123472 1.7529338014117624 180 172 119 0.45203509872757219 60 2163 79 1291 21 1234 65 1242 8 1711 64 1912 93 1836
7817 0.27305254285171926 0.94536826820685671 2.0076446666052665 173 179 132 0.33147180889735078 8 1586 79 1152 26 1202 21 1134 35 2124 59 2197 100 2069 28 1719 80 808 75 803 45 1234 69 1012
7819 0.20514358529409049 1.4165235067453501 2.5393706846631248 41 80 40 0.06273689023267405 6 1171 63 914 47 898
7820 0.13304103083351215 1.2796190363029589 1.9490805046794737 169 169 121 1.2338521034819383 8 759 21 105
7821 -0.2210476621399155 0.80109459787347104 2.221416869300799 48 91 46 0.0044830061815068966 26 128 21 116
7822 -0.55828464200547356 1.8147777812779686 2.3797055553382189 132 202 98 0.11491995616209488 26 312 21 260
7823 -0.16611042033031956 2.0776058488396063 2.3176280856441176 254 246 151 0.068937305142689406 26 791 21 271
7825 -0.14484665830402402 2.2690623500362013 2.3795042780532367 54 90 45 0.0060259735430974052 60 631 21 340
7826 -0.21009680059452968 1.9042278478061077 2.3267411041533257 124 195 98 0.075550664204281651 26 767 21 689
7827 -0.42345799728427935 1.939561968942686 2.3418015608586078 119 185 92 0.022938497165741249 26 1069 21 1003
7828 -0.42662622467096462 1.9686669247865631 2.337976071823249 128 190 95 0.037799720607132409 26 1074 21 1008
7829 -0.27714364651950674 1.9344004311630343 2.3190927707235351 238 241 138 0.089445089973686179 26 1251 21 1176
7830 0.34419913949296382 2.4432141903816698 2.6842283058159921 0 0 0 1.3473032293974145 26 1618 21 1491
7831 -0.79308654735317141 2.0232626545343386 2.8149563549385053 0 0 0 1.8449415239314102 79 1643 21 1536
7833 0.47846035487550848 0.81374041518189044 1.7488873598712746 57 101 67 0.87273435273210787 76 777 28 61
7834 0.44234346852675405 0.82989145422015576 1.7996633031866622 209 205 152 0.031530627802400034 65 70 28 66
7835 -0.059850132262824977 1.9409648112833169 1.4402889074901604 72 121 71 0.51155231962603787 34 1295 28 68
7838 -0.048200610697791815 1.0499741730616308 1.7651659561072361 151 161 113 2.9196722810488676 30 347 28 75
7842 -0.16499957897088868 0.67589542019037363 1.9700289896086951 59 114 64 0.20582984592312153 61 937 28 96 64 784 18 69
7849 0.014966108614758833 1.8585077706656594 1.7344134714213928 196 196 144 2.0935866449410563 59 522 28 152
7850 0.011711640644339438 2.0577496261239392 2.3054147463180104 0 0 0 0.11619185691263972 59 679 77 657
7851 -0.24337677525315138 1.0581672737087311 2.0697961341686724 48 93 51 0.82830504026259533 30 342 28 163
7856 0.3956049574117162 1.0364431798271139 2.1054796357174537 59 83 44 0.077040853431785433 35 260 28 171
7859 0.012047910938815964 0.91805660292059499 2.1917249399245149 45 89 49 0.060385377644219786 85 271 28 184
7866 -0.14378792611597974 0.87685292864596998 2.2581831688772263 49 93 51 0.11477883612826334 60 288 28 200
7867 0.032777556486641699 1.8538223843951591 2.3557408150086094 0 0 0 0.050620887080760527 12 974 82 321
7869 -0.24819542439629577 2.0896840274793966 1.7526839849210756 43 86 44 1.3729031263525078 35 736 28 212
7872 -0.2213363277544847 1.6578577795557479 1.9650330418402069 155 159 112 1.7429510622274504 12 337 28 220
7874 0.33101909275766012 1.1046714235095052 2.2711692490922943 40 77 41 0.082218559901103702 8 232 28 231
7881 -0.17976895963715206 0.91145129211646458 2.5017179069999345 51 110 64 0.18751098217277162 26 209 28 276
7882 -0.7025578294428938 1.8769655796951472 2.4103582625427049 122 199 97 0.56044844832535345 21 724 26 356 28 402
7883 0.13658581895131233 2.2909258284193323 2.3474989157775195 45 71 38 0.10210774706943154 8 585 28 464 69 262
7884 -0.67888664502179008 2.0409393089056911 2.4528492424540551 154 146 104 0.16070750402523445 60 693 28 466 93 580
7885 -0.40763654895108647 2.2013923348888036 2.3810584251971028 177 175 132 0.073750293568377118 21 344 28 469
7886 -0.85796989469669138 1.9019511708686865 2.5515029869531061 64 117 68 0.22144298582565367 26 417 28 477 53 408 93 638
7887 -0.48552442080771691 2.1926075919554409 2.4378621058657326 52 102 56 0.2244630927486356 21 372 28 507 93 573
7888 -0.85650932517632539 1.9145343992609698 2.5978745619094812 116 119 94 0.60627707771284967 79 456 28 513 93 653 18 398
7889 -0.79054860489481438 1.9567796888383457 2.5826520373495692 66 109 69 0.24809873164151047 21 795 28 521 53 428 79 872 93 1458 64 1487 18 392
7890 -0.51160584131552278 2.1849460383228143 2.4628492019027806 50 103 56 0.18357438371319998 21 382 28 529 93 595
7891 0.25158319581385824 2.3563829219498409 2.4495331385172365 73 91 46 0.13003197179929452 8 620 28 553 45 452
7892 0.20581156801151412 0.64275091702534459 1.7101191898333836 78 156 89 0.22065854253805889 65 482 28 698
7895 -0.14045415068614253 0.69920914859518235 1.9720769589072258 55 112 61 0.037269335675861909 26 83 28 749
7897 0.11570354788660027 0.85231383609045031 1.9794222175491316 50 101 56 0.0075287565934199462 85 901 28 758
7898 0.09741924556564914 0.85651202042211472 1.999176829705386 46 96 55 0.12143352696656048 21 85 28 762
7900 0.066280821370132262 0.93576106468976861 2.1737084110399798 44 88 48 0.026881643200271973 60 913 28 787
7901 0.066262385672675381 0.93576885415209077 2.1736526230899145 44 88 48 0.024508261611730309 26 131 60 914 28 788
7904 -0.26452832341561339 0.80950779862718714 2.3275770487636049 50 107 58 0.25907880162849806 100 232 28 817
7905 -0.09766756479425856 1.7399756022448649 1.9583832600759004 148 150 107 2.9221765164292144 12 927 28 834
7907 -0.067385974202169935 0.9531968185667089 2.3666946439111101 144 149 107 0.061926806957603941 21 167 28 843
7909 0.16622648831985443 1.0530138596611569 2.3436426411868592 148 154 108 0.20658225197569041 26 187 28 849
7910 -0.011080304490122893 0.97897143492960925 2.3801881877558175 153 157 109 0.056737365785340985 26 192 28 850
7911 -0.16215283644254919 0.92475778555517019 2.436901654476392 51 104 59 0.13573524984511273 26 197 28 857 21 178
7912 0.010218041383131163 0.98546600952469499 2.4866630186330516 47 96 53 0.21795608428069749 21 181 28 862 93 908
7914 -0.035732596981369692 1.0574558782664367 2.6058179001633062 164 170 185 1.1966252544819374 60 371 28 896 53 636 26 722
7915 -0.070199604031418561 1.9863976271930175 2.3160468052536918 135 210 104 0.17691150745563974 26 308 28 941
7916 0.028005806433209962 2.2718400209670135 2.336662620568164 41 69 36 0.094408702122067187 26 377 28 1001
7917 0.028005806433209962 2.2718400209670135 2.336662620568164 41 69 36 0.094408702122067187 26 376 28 1002
7918 -0.15820384909084378 2.2467336383711185 2.339855641831905 174 178 135 0.17414781717099453 8 550 28 1003
7919 -0.076433943495190518 2.2572896262098183 2.3399798192252432 37 65 34 0.087370148786786339 26 383 28 1004
7920 -0.076433943495190518 2.2572896262098183 2.3399798192252432 37 65 34 0.087370148786786339 26 384 28 1005
7921 -0.48345645093053474 2.1580276804631615 2.3781607148003623 49 99 55 0.13333454595570135 21 339 28 1008 93 522
7922 -0.51821866314783538 2.1474006242038235 2.397176940140183 160 155 113 0.063013278539111414 26 408 28 1012 93 541 21 345
7925 -0.45469387272237832 2.1903299008887154 2.3959360081324488 50 99 54 0.17089850528000153 26 416 28 1028 93 539
7926 -0.72097999505170907 2.0166978093457879 2.5159294252648441 55 115 64 0.27309873855336109 21 376 28 1040
7928 -0.71716746247541741 1.9622394639828984 2.647323568174512 166 161 162 2.3657661884987498 26 869 28 1063
7929 0.039631961356283552 0.50788296660723575 1.6192770557059051 92 71 49 0.6841625857794964 26 925 28 1158 80 780 75 586 69 666
7930 0.076646886957418156 0.66041394353214788 1.7789178083722288 144 162 103 0.10820047714770582 21 494 28 1170
7931 0.17997602098124121 0.71899796225423818 1.7769433634811242 161 168 118 0.3111059994720563 38 1102 28 1175 64 1176
7932 0.46149756923968094 0.78286042653106214 1.7602659546870116 130 160 109 0.33036111818073721 21 497 28 1177 18 25 93 753 52 14
7933 0.013415988367797227 0.72868815218298866 1.8830697444531885 58 113 63 0.210047570378465 79 548 28 1192
